# This PCD file was generated using the MATLAB® pcwrite function
# from Computer Vision Toolbox®.
# .PCD v.7 - Point Cloud Data file format
VERSION .7
FIELDS x y z intensity
SIZE 4 4 4 1
TYPE F F F U
COUNT 1 1 1 1
WIDTH 1485
HEIGHT 1
VIEWPOINT 0 0 0 1 0 0 0
POINTS 1485
DATA ascii
-0.000000 0.000000 -0.000000 0
-9.620467 0.353389 0.031148 255
-9.577156 0.410651 0.031169 255
-9.551484 0.468279 0.031181 255
-12.027642 0.663981 0.029881 255
-12.025338 0.737891 0.029880 255
-12.018588 0.811528 0.029881 255
-9.775829 0.240234 -0.028571 255
-9.738189 0.299107 -0.028333 255
-0.000000 0.000000 -0.000000 0
-9.627886 0.414028 -0.027630 255
-9.552254 0.469509 -0.027146 255
-12.021355 0.664934 -0.043567 255
-12.026031 0.739236 -0.043627 255
-12.021270 0.813012 -0.043627 255
-12.020043 0.887053 -0.043653 255
-12.021352 0.961348 -0.043700 255
-12.025190 1.035950 -0.043766 255
-12.018607 1.109716 -0.043766 255
-12.008586 1.183145 -0.043746 255
-12.010052 1.257744 -0.043806 255
-12.000120 1.331192 -0.043792 255
-11.997685 1.405497 -0.043832 255
-11.993797 1.479699 -0.043865 255
-11.997385 1.554935 -0.043952 255
-11.995544 1.629597 -0.044005 255
-11.929878 1.695290 -0.043633 255
-11.085402 1.644712 -0.038042 255
-10.458449 1.617316 -0.033904 255
-10.148199 1.633146 -0.031888 255
-9.779968 1.635498 -0.029480 255
-9.226879 1.601243 -0.025826 255
-9.228691 1.659953 -0.025905 255
-9.218332 1.716547 -0.025905 255
-9.208608 1.773267 -0.025912 255
-9.205400 1.831298 -0.025965 255
-9.204764 1.889959 -0.026038 255
-9.205712 1.949096 -0.026124 255
-9.202373 2.007463 -0.026184 255
-0.000000 0.000000 -0.000000 0
-7.343407 1.696521 -0.013702 255
-7.242379 1.720053 -0.013085 255
-7.057796 1.722022 -0.011898 255
-6.958827 1.743179 -0.011295 255
-6.943158 1.784599 -0.011261 255
-6.938846 1.828953 -0.011308 255
-6.941008 1.875146 -0.011401 255
-6.942864 1.921435 -0.011494 255
-6.934792 1.965090 -0.011520 255
-12.007874 3.482666 -0.046638 255
-11.999701 3.560262 -0.046730 255
-11.983371 3.635566 -0.046770 255
-11.978985 3.714654 -0.046896 255
-11.957873 3.788690 -0.046910 255
-0.000000 0.000000 -0.000000 0
-6.969351 2.302459 -0.012396 255
-6.966463 2.349013 -0.012475 255
-6.949081 2.390738 -0.012455 255
-0.000000 0.000000 -0.000000 0
-0.000000 0.000000 -0.000000 0
-6.982809 2.547031 -0.013012 255
-6.974548 2.592617 -0.013065 255
-6.946352 2.630758 -0.012979 255
-0.000000 0.000000 -0.000000 0
-5.429043 2.132565 -0.002401 255
-5.420498 2.167694 -0.002434 255
-5.423766 2.207700 -0.002553 255
-0.000000 0.000000 -0.000000 0
-5.414695 2.281860 -0.002686 255
-5.381291 2.306766 -0.002547 255
-5.405535 2.356528 -0.002825 255
-0.000000 0.000000 -0.000000 0
-5.357065 2.414056 -0.002686 212
-0.000000 0.000000 -0.000000 0
-5.305280 2.469484 -0.002527 255
-0.000000 0.000000 -0.000000 0
-0.000000 0.000000 -0.000000 0
-0.000000 0.000000 -0.000000 0
-0.000000 0.000000 -0.000000 0
-4.519638 2.274930 0.002726 106
-0.000000 0.000000 -0.000000 0
-4.383094 2.274030 0.003535 150
-3.838210 2.021267 0.007514 152
-0.000000 0.000000 -0.000000 0
-3.764775 2.041989 0.007879 255
-3.753926 2.066015 0.007866 255
-3.699273 2.065605 0.008184 163
-0.000000 0.000000 -0.000000 0
-3.693587 2.122305 0.008032 111
-3.689998 2.150468 0.007959 255
-3.679316 2.174596 0.007939 112
-3.673623 2.201758 0.007879 185
-3.666026 2.227893 0.007833 205
-3.661651 2.256117 0.007760 255
-3.637562 2.272184 0.007839 223
-3.618483 2.291250 0.007879 147
-3.597624 2.309088 0.007932 149
-3.569977 2.322393 0.008038 182
-3.537294 2.332144 0.008184 255
-3.478021 2.323801 0.008542 89
-0.000000 0.000000 -0.000000 0
-3.303300 2.266165 0.009716 98
-0.000000 0.000000 -0.000000 0
-0.000000 0.000000 -0.000000 0
-3.144629 2.243522 0.010665 90
-3.116216 2.252229 0.010784 105
-0.000000 0.000000 -0.000000 0
-3.035335 2.250982 0.011222 72
-0.000000 0.000000 -0.000000 0
-2.941434 2.237800 0.011772 69
-2.895966 2.231389 0.012037 81
-0.000000 0.000000 -0.000000 0
-2.840123 2.244436 0.012276 81
-2.802878 2.243073 0.012475 53
-2.769641 2.244487 0.012641 65
-0.000000 0.000000 -0.000000 0
-0.000000 0.000000 -0.000000 0
-0.000000 0.000000 -0.000000 0
-2.633043 2.243035 0.013344 74
-0.000000 0.000000 -0.000000 0
-0.000000 0.000000 -0.000000 0
-2.495428 2.206327 0.014193 101
-2.429694 2.174905 0.014657 54
-2.295538 2.080303 0.015738 78
-2.209791 2.027412 0.016395 109
-2.186321 2.030724 0.016494 135
-2.162893 2.033824 0.016594 124
-2.138786 2.036024 0.016700 36
-2.123374 2.046333 0.016726 167
-2.125091 2.073291 0.016594 116
-0.000000 0.000000 -0.000000 0
-2.124235 2.123963 0.016362 182
-2.124514 2.150475 0.016236 193
-2.123848 2.176354 0.016116 130
-2.116006 2.195105 0.016063 140
-2.091465 2.196459 0.016169 255
-2.089594 2.221635 0.016057 196
-2.071159 2.229285 0.016103 149
-2.035809 2.218373 0.016315 56
-2.024845 2.233787 0.016289 164
-2.030442 2.267776 0.016096 255
-1.985358 2.244981 0.016408 135
-1.961679 2.245823 0.016508 54
-1.943944 2.253274 0.016547 89
-1.927487 2.262114 0.016574 178
-1.900052 2.257829 0.016713 105
-1.873381 2.254063 0.016846 87
-1.840486 2.242324 0.017045 51
-1.812842 2.236483 0.017191 58
-1.789713 2.235853 0.017290 58
-1.752400 2.216978 0.017542 120
-1.732613 2.219805 0.017609 87
-1.711636 2.220889 0.017688 78
-1.692527 2.224187 0.017748 78
-1.670440 2.223336 0.017841 93
-1.653193 2.228725 0.017880 101
-1.630626 2.226724 0.017980 62
-1.616347 2.235877 0.017987 46
-1.587498 2.224587 0.018159 74
-1.568061 2.226110 0.018225 89
-1.547524 2.225836 0.018305 132
-1.527615 2.226218 0.018378 147
-1.504957 2.222301 0.018484 43
-1.481849 2.217358 0.018597 78
-1.469867 2.228913 0.018577 57
-1.444167 2.219449 0.018723 71
-1.421340 2.213962 0.018836 69
-1.399170 2.209123 0.018942 70
-1.379232 2.207489 0.019021 130
-1.355695 2.199734 0.019147 120
-1.334902 2.196047 0.019240 66
-1.319860 2.201623 0.019260 119
-1.301747 2.201933 0.019320 105
-1.283681 2.202103 0.019379 130
-1.267156 2.204736 0.019419 129
-1.251140 2.208118 0.019452 136
-1.229768 2.201784 0.019558 165
-1.216235 2.209288 0.019558 153
-1.198365 2.208798 0.019618 126
-1.180548 2.208172 0.019678 126
-1.163715 2.209181 0.019724 131
-1.146915 2.210066 0.019771 168
-1.131057 2.212610 0.019804 136
-1.113863 2.212362 0.019857 160
-1.098935 2.216467 0.019877 122
-1.080052 2.212384 0.019956 200
-1.062127 2.209956 0.020023 216
-1.047692 2.214623 0.020036 180
-1.032817 2.218290 0.020056 197
-1.016689 2.219131 0.020096 208
-1.003053 2.225327 0.020096 255
-0.702113 1.583261 0.024798 255
-0.668411 1.532538 0.025196 255
-0.656238 1.530177 0.025242 255
-0.645283 1.530488 0.025269 255
-0.634733 1.531647 0.025289 255
-0.623815 1.531808 0.025315 255
-0.612548 1.530964 0.025348 255
-0.602046 1.531902 0.025368 255
-0.591555 1.532768 0.025388 255
-0.580369 1.531693 0.025421 255
-0.570263 1.533351 0.025435 255
-0.559131 1.532123 0.025468 255
-0.548372 1.531759 0.025494 255
-0.536646 1.528490 0.025541 255
-0.525956 1.527972 0.025567 255
-0.515613 1.528327 0.025587 255
-0.504344 1.525765 0.025627 255
-0.493433 1.524074 0.025660 255
-0.483770 1.526119 0.025667 255
-0.472917 1.524283 0.025700 255
-0.462394 1.523329 0.025726 255
-0.452186 1.523261 0.025746 255
-0.442274 1.524086 0.025760 255
-0.431823 1.522923 0.025786 255
-0.421671 1.522652 0.025806 255
-0.411017 1.520384 0.025839 255
-0.400661 1.519009 0.025866 255
-0.390088 1.516597 0.025899 255
-0.380047 1.516052 0.025919 255
-0.370263 1.516412 0.025932 255
-0.360490 1.516709 0.025945 255
-0.351177 1.518893 0.025945 255
-0.356964 1.588342 0.025488 252
-0.359354 1.646193 0.025110 190
-0.354837 1.674781 0.024930 202
-0.354003 1.722966 0.024619 173
-0.359026 1.803568 0.024088 186
-0.376681 1.954994 0.023080 255
-0.396881 2.130293 0.021913 255
-0.387518 2.153357 0.021774 255
-0.370196 2.132047 0.021933 255
-0.372108 2.224032 0.021329 255
-0.000000 0.000000 -0.000000 0
-0.364948 2.358879 0.020454 255
-0.354134 2.385803 0.020288 255
-0.337520 2.374070 0.020381 255
-0.324830 2.389969 0.020288 255
-0.281391 2.169777 0.021774 255
-0.270641 2.192305 0.021634 255
-0.256719 2.189951 0.021661 255
-0.000000 0.000000 -0.000000 0
-0.926469 8.851446 -0.022742 255
-0.872434 8.859949 -0.022762 255
-0.816952 8.853187 -0.022682 255
-0.761843 8.849066 -0.022622 255
-0.707134 8.848590 -0.022589 255
-0.652532 8.848773 -0.022563 255
-0.597349 8.839641 -0.022476 255
-0.541016 8.809204 -0.022251 255
-0.478960 8.667582 -0.021289 255
-0.423171 8.617422 -0.020938 255
-0.369301 8.596878 -0.020785 255
-0.316912 8.608975 -0.020852 255
-0.263348 8.586769 -0.020692 255
-0.210705 8.590223 -0.020706 255
-0.000000 0.000000 -0.000000 0
-0.026961 2.176781 0.021847 255
-0.052417 8.570647 -0.020560 255
-0.000246 2.176948 0.021847 223
0.013092 2.173908 0.021866 246
0.026591 2.186786 0.021780 255
0.039916 2.181582 0.021813 255
0.053449 2.187294 0.021774 255
0.066716 2.181928 0.021807 255
0.079992 2.178479 0.021827 255
1.670696 38.823208 -0.221443 255
0.430302 8.755235 -0.021853 255
0.483297 8.739450 -0.021767 255
0.539490 8.778240 -0.022045 255
0.593545 8.777758 -0.022065 255
0.649160 8.797885 -0.022224 255
0.702971 8.791742 -0.022211 255
0.758363 8.804200 -0.022324 255
0.813290 8.809339 -0.022390 255
0.867720 8.808164 -0.022417 255
0.920916 8.794717 -0.022364 255
0.972546 8.768029 -0.022224 255
1.027724 8.773815 -0.022304 255
1.078478 8.742533 -0.022138 255
1.137371 8.776409 -0.022410 255
1.190528 8.764311 -0.022377 255
1.245126 8.762781 -0.022417 255
1.302247 8.777727 -0.022569 255
1.360056 8.795265 -0.022742 255
1.412725 8.778856 -0.022689 255
1.466400 8.769036 -0.022682 255
1.522230 8.771696 -0.022762 255
1.576555 8.765143 -0.022782 255
1.635617 8.783814 -0.022974 255
1.688348 8.767721 -0.022934 255
1.741724 8.755235 -0.022921 255
1.770870 8.624880 -0.022112 255
1.862085 8.794834 -0.023339 255
1.866771 8.557558 -0.021807 255
1.968555 8.765468 -0.023299 255
2.027481 8.775632 -0.023451 255
2.071813 8.723138 -0.023179 255
2.141894 8.778264 -0.023644 255
2.192556 8.752346 -0.023558 255
2.248459 8.747444 -0.023617 255
2.303620 8.739285 -0.023657 255
2.361634 8.741397 -0.023770 255
2.406156 8.693974 -0.023544 255
2.478271 8.745431 -0.024002 255
2.531328 8.728139 -0.023989 255
2.582559 8.704774 -0.023936 255
2.635341 8.686850 -0.023922 255
2.694221 8.688663 -0.024048 255
0.000000 0.000000 -0.000000 0
0.713353 2.205447 0.020911 27
0.000000 0.000000 -0.000000 0
0.000000 0.000000 -0.000000 0
2.205280 6.410109 -0.008675 255
2.227019 6.346449 -0.008323 255
2.256484 6.306303 -0.008138 255
2.307131 6.325218 -0.008370 255
2.357049 6.340936 -0.008582 255
2.376076 6.273986 -0.008211 255
2.415248 6.261155 -0.008224 255
2.453986 6.247148 -0.008231 255
2.489300 6.224545 -0.008177 255
2.527447 6.209154 -0.008177 255
2.560522 6.181519 -0.008091 255
2.592577 6.151870 -0.007992 255
2.623577 6.120222 -0.007879 255
2.658682 6.098509 -0.007839 255
2.691594 6.072025 -0.007766 255
2.729211 6.056307 -0.007773 255
2.766737 6.040356 -0.007780 255
2.761965 5.933518 -0.007123 255
2.782499 5.883013 -0.006878 255
2.798186 5.823468 -0.006566 255
1.120877 2.297055 0.019333 255
1.107856 2.235483 0.019737 255
1.099968 2.185771 0.020056 255
1.107898 2.168295 0.020135 255
1.122102 2.163232 0.020122 255
1.134423 2.154537 0.020135 255
1.141964 2.136953 0.020215 255
1.123106 2.071015 0.020659 255
1.170513 2.127158 0.020182 255
1.184518 2.121682 0.020169 255
1.198500 2.116114 0.020155 255
1.214451 2.113923 0.020116 255
1.206249 2.070147 0.020394 255
1.156845 1.957687 0.021203 217
1.159067 1.934256 0.021329 31
0.000000 0.000000 -0.000000 0
1.182716 1.919887 0.021329 204
1.199242 1.920226 0.021270 72
1.208862 1.909452 0.021296 51
0.000000 0.000000 -0.000000 0
0.000000 0.000000 -0.000000 0
0.000000 0.000000 -0.000000 0
3.358907 5.026947 -0.003813 255
3.382960 4.996307 -0.003734 255
3.415250 4.977929 -0.003754 255
3.965178 5.704032 -0.009789 255
4.005285 5.686953 -0.009849 255
4.052883 5.680178 -0.009995 255
0.000000 0.000000 -0.000000 0
0.000000 0.000000 -0.000000 0
0.000000 0.000000 -0.000000 0
0.000000 0.000000 -0.000000 0
0.000000 0.000000 -0.000000 0
0.000000 0.000000 -0.000000 0
3.352910 4.296410 0.000139 255
3.377349 4.273402 0.000159 255
3.395383 4.242450 0.000245 255
6.782557 8.368256 -0.035157 255
0.000000 0.000000 -0.000000 0
6.925004 8.332844 -0.035575 255
7.020431 8.342988 -0.036033 255
7.107160 8.341618 -0.036397 255
7.176499 8.319052 -0.036583 255
7.248460 8.298961 -0.036795 255
7.319781 8.277551 -0.037001 255
7.386442 8.250361 -0.037160 255
0.000000 0.000000 -0.000000 0
3.337745 3.637625 0.003542 98
3.357960 3.614878 0.003562 122
0.000000 0.000000 -0.000000 0
3.331041 3.498808 0.004245 255
3.335097 3.460304 0.004410 255
2.632716 2.698342 0.011281 255
2.627436 2.660085 0.011487 255
2.631688 2.631893 0.011600 255
2.628578 2.596723 0.011779 255
2.645177 2.581244 0.011772 255
2.655205 2.559414 0.011825 255
2.668687 2.541005 0.011845 255
2.669658 2.510882 0.011978 255
2.677687 2.487649 0.012044 255
2.677427 2.456975 0.012183 255
2.675410 2.425056 0.012336 255
2.670122 2.390587 0.012515 255
2.664513 2.356275 0.012694 255
2.634481 2.301075 0.013085 255
2.648551 2.284867 0.013085 255
2.633594 2.243931 0.013337 145
2.629713 2.212923 0.013490 248
2.617091 2.175018 0.013715 255
2.612608 2.144329 0.013868 255
2.616393 2.120703 0.013948 255
2.616083 2.093988 0.014060 255
2.620252 2.071076 0.014133 255
2.648678 2.067263 0.014001 255
2.654976 2.046090 0.014054 255
2.659522 2.023706 0.014120 255
2.659096 1.997741 0.014226 255
2.642388 1.959944 0.014465 196
0.000000 0.000000 -0.000000 0
2.640305 1.908627 0.014677 150
2.643012 1.886003 0.014750 96
2.632459 1.854205 0.014929 255
2.647071 1.840300 0.014903 255
2.655839 1.822326 0.014923 255
2.635504 1.784694 0.015175 255
2.635596 1.761267 0.015261 255
2.632161 1.735706 0.015373 255
2.629349 1.710798 0.015480 255
2.627173 1.686531 0.015579 255
2.640852 1.672519 0.015553 255
2.640887 1.649927 0.015632 255
2.645001 1.630020 0.015679 255
2.641280 1.605451 0.015785 255
2.639930 1.582532 0.015871 255
2.635817 1.558164 0.015977 255
2.631504 1.533906 0.016083 255
2.628728 1.510756 0.016176 255
2.630117 1.490162 0.016236 255
2.636592 1.472534 0.016256 255
2.637693 1.451989 0.016315 255
2.700173 1.464858 0.015911 255
2.727631 1.458160 0.015771 255
2.759531 1.453510 0.015599 255
2.795027 1.450365 0.015400 255
2.832369 1.447748 0.015188 255
2.869782 1.444727 0.014976 255
2.916224 1.445741 0.014697 255
2.949304 1.439661 0.014518 255
2.982419 1.433229 0.014339 255
3.009237 1.423452 0.014206 255
3.075031 1.431543 0.013788 255
3.161036 1.448039 0.013225 219
0.000000 0.000000 -0.000000 0
3.173997 1.407113 0.013258 255
3.221072 1.404392 0.012979 255
3.215842 1.378693 0.013079 255
3.243593 1.367089 0.012939 151
3.230670 1.338361 0.013092 255
3.242526 1.320020 0.013065 198
3.268207 1.307153 0.012939 255
3.264996 1.282689 0.013019 255
3.506987 1.352947 0.011354 255
3.663917 1.387704 0.010300 255
3.700483 1.375648 0.010101 255
3.796224 1.384777 0.009484 255
3.837604 1.373246 0.009252 255
3.315658 1.163630 0.012979 62
0.000000 0.000000 -0.000000 0
5.467441 1.843495 -0.001983 255
5.474851 1.808659 -0.001956 172
0.000000 0.000000 -0.000000 0
7.100093 2.249196 -0.013112 255
0.000000 0.000000 -0.000000 0
0.000000 0.000000 -0.000000 0
7.011824 2.080024 -0.012223 255
6.999484 2.029721 -0.012051 255
6.992564 1.981284 -0.011918 255
7.002662 1.937808 -0.011905 255
7.006697 1.892718 -0.011852 255
7.019145 1.849945 -0.011858 255
7.027459 1.806095 -0.011838 255
7.046169 1.764884 -0.011891 255
0.000000 0.000000 -0.000000 0
6.936923 1.647331 -0.011003 255
6.946900 1.604736 -0.011003 255
6.951737 1.560986 -0.010970 255
6.963139 1.518727 -0.010983 255
3.207792 0.679273 0.014538 141
3.203083 0.657768 0.014598 76
3.200193 0.636737 0.014644 128
0.000000 0.000000 -0.000000 0
3.208749 0.597601 0.014637 75
3.209403 0.577370 0.014657 203
3.203033 0.555958 0.014724 86
2.058334 0.344414 0.022443 255
2.056459 0.331143 0.022470 255
2.053511 0.317755 0.022503 255
2.053444 0.304855 0.022516 255
2.054286 0.292109 0.022523 255
2.056039 0.279499 0.022523 255
2.057716 0.266878 0.022523 255
2.058322 0.254125 0.022530 255
2.060836 0.241607 0.022523 255
2.050353 0.227635 0.022603 204
2.065634 0.216507 0.022510 104
2.067919 0.203926 0.022503 78
2.052204 0.189673 0.022616 229
2.047351 0.176563 0.022656 255
2.047399 0.163917 0.022662 255
2.051358 0.151572 0.022642 255
2.062227 0.139656 0.022576 86
2.064043 0.127061 0.022569 73
2.053801 0.113788 0.022642 38
2.055459 0.101233 0.022636 255
2.061037 0.088833 0.022603 255
2.057546 0.076038 0.022629 255
2.058973 0.063443 0.022622 255
2.062323 0.050881 0.022603 166
2.058597 0.038153 0.022629 77
2.058792 0.025521 0.022629 72
2.068910 0.012948 0.022563 255
2.068950 0.000254 0.022563 255
2.066913 -0.012429 0.022576 255
2.040800 -0.024790 0.022749 238
2.046608 -0.037423 0.022709 130
2.053338 -0.050152 0.022662 110
2.043996 -0.062473 0.022722 222
2.055566 -0.075457 0.022642 255
2.054065 -0.088025 0.022649 255
2.054485 -0.100676 0.022642 255
2.073798 -0.114385 0.022510 168
2.074055 -0.127169 0.022503 117
2.070242 -0.139690 0.022523 95
2.049401 -0.150918 0.022656 255
2.056411 -0.164128 0.022603 255
2.056361 -0.176828 0.022596 255
2.056233 -0.189535 0.022589 255
2.047071 -0.201363 0.022642 127
2.039829 -0.213295 0.022682 84
2.044445 -0.226469 0.022642 89
2.055929 -0.240522 0.022556 255
2.050444 -0.252643 0.022583 255
2.048856 -0.265219 0.022583 255
2.067998 -0.280613 0.022443 255
2.076138 -0.294704 0.022377 141
2.070333 -0.306850 0.022404 66
2.063471 -0.318784 0.022437 255
2.057527 -0.330803 0.022463 255
2.048554 -0.342267 0.022510 255
2.045430 -0.354659 0.022516 72
18.512432 -3.330204 -0.088467 255
18.496565 -3.444647 -0.088500 255
18.494719 -3.561858 -0.088633 255
18.495073 -3.679760 -0.088785 255
18.500553 -3.799009 -0.088978 255
18.494503 -3.916183 -0.089097 255
18.477942 -4.031295 -0.089150 255
18.469444 -4.148324 -0.089263 255
18.468975 -4.267426 -0.089435 255
18.463846 -4.385753 -0.089581 255
18.458933 -4.504416 -0.089734 255
18.450346 -4.622454 -0.089866 255
3.199965 -0.822270 0.014372 255
3.217099 -0.847753 0.014219 255
3.214733 -0.868259 0.014200 77
0.000000 -0.000000 -0.000000 0
3.205760 -0.908189 0.014186 91
3.197246 -0.927006 0.014206 90
3.205878 -0.950874 0.014107 57
16.491329 -5.003362 -0.078015 255
16.453632 -5.102383 -0.077968 255
16.076933 -5.093898 -0.075567 255
15.744734 -5.095151 -0.073471 255
15.506186 -5.123268 -0.072026 255
0.000000 -0.000000 -0.000000 0
0.000000 -0.000000 -0.000000 0
0.000000 -0.000000 -0.000000 0
8.991465 -3.217448 -0.027053 255
8.892642 -3.243770 -0.026496 255
8.762908 -3.257502 -0.025720 255
8.710026 -3.298811 -0.025488 255
8.505830 -3.281283 -0.024181 255
8.431554 -3.312203 -0.023796 255
3.598856 -1.439067 0.010578 181
3.654790 -1.487516 0.010114 255
3.633584 -1.504938 0.010200 255
3.612303 -1.522155 0.010287 255
3.604733 -1.545079 0.010273 255
3.562186 -1.552780 0.010512 255
3.539793 -1.568934 0.010605 255
3.530100 -1.590624 0.010605 255
3.528455 -1.616003 0.010545 255
3.532072 -1.643954 0.010446 255
3.528246 -1.668588 0.010399 255
3.279998 -1.575856 0.012150 255
3.235220 -1.578844 0.012409 255
3.143047 -1.557801 0.013019 255
3.191486 -1.606285 0.012588 77
3.167324 -1.618556 0.012694 204
3.152007 -1.635196 0.012734 103
3.095023 -1.629806 0.013085 255
2.749853 -1.469618 0.015606 255
2.762758 -1.498384 0.015440 255
2.673795 -1.471425 0.016043 255
2.639397 -1.473663 0.016236 255
2.638136 -1.494267 0.016176 255
2.628917 -1.510426 0.016176 255
2.608369 -1.519981 0.016262 255
2.563700 -1.515094 0.016534 255
2.547494 -1.526682 0.016587 255
2.548333 -1.548518 0.016508 255
2.548148 -1.569896 0.016435 255
2.547796 -1.591330 0.016362 255
2.545587 -1.611748 0.016302 255
2.544064 -1.632739 0.016236 255
2.544056 -1.654863 0.016156 255
2.548046 -1.679800 0.016043 255
2.560139 -1.710405 0.015864 255
2.556220 -1.730567 0.015811 255
2.552150 -1.750745 0.015758 255
2.546285 -1.769797 0.015718 255
2.541101 -1.789418 0.015672 255
2.535771 -1.809042 0.015626 255
2.525434 -1.825153 0.015619 255
6.165724 -4.514574 -0.014398 255
2.502043 -1.855411 0.015626 255
2.485015 -1.866524 0.015672 255
2.465558 -1.875681 0.015738 255
2.446874 -1.885280 0.015798 255
2.430530 -1.896567 0.015838 255
2.411002 -1.905244 0.015904 255
2.391460 -1.913753 0.015970 255
2.371127 -1.921464 0.016043 255
2.355428 -1.932805 0.016077 255
2.337372 -1.942107 0.016130 255
2.320055 -1.951906 0.016176 255
2.302707 -1.961565 0.016222 255
2.286842 -1.972391 0.016256 255
2.270178 -1.982438 0.016295 255
2.252728 -1.991694 0.016342 255
2.235249 -2.000809 0.016388 255
2.218485 -2.010457 0.016428 255
2.186215 -2.005776 0.016607 204
2.171669 -2.017111 0.016627 151
2.157066 -2.028343 0.016647 168
2.143856 -2.040851 0.016654 133
2.130573 -2.053273 0.016660 106
2.117934 -2.066307 0.016660 106
2.095968 -2.070127 0.016746 149
2.077570 -2.077292 0.016799 255
2.067595 -2.092846 0.016773 255
2.051922 -2.102630 0.016799 255
2.028573 -2.104381 0.016899 249
2.020449 -2.121858 0.016852 104
2.003282 -2.129844 0.016892 224
1.988814 -2.140631 0.016906 255
1.977670 -2.155004 0.016886 255
2.995156 -3.304501 0.006705 242
2.982827 -3.331758 0.006626 125
2.960340 -3.347750 0.006646 164
2.945005 -3.371877 0.006592 223
2.928179 -3.394427 0.006553 243
2.922210 -3.429838 0.006400 255
2.890166 -3.434696 0.006513 255
2.868398 -3.451596 0.006520 255
2.860486 -3.485364 0.006380 255
2.853527 -3.520720 0.006228 255
2.846241 -3.556120 0.006075 255
2.833667 -3.585286 0.005976 255
2.853446 -3.656214 0.005525 255
2.834010 -3.677614 0.005492 255
2.813207 -3.697322 0.005472 255
2.793471 -3.718512 0.005438 255
2.774176 -3.740402 0.005399 255
2.758852 -3.767843 0.005312 255
2.741538 -3.792804 0.005246 255
2.726345 -3.820951 0.005153 255
2.711485 -3.849872 0.005054 255
2.694660 -3.876291 0.004974 255
2.679875 -3.905945 0.004868 255
2.662585 -3.932252 0.004788 255
2.647295 -3.961819 0.004682 255
2.631192 -3.990511 0.004583 255
2.615927 -4.020831 0.004470 255
2.600388 -4.051113 0.004357 255
2.584576 -4.081355 0.004245 255
2.567960 -4.110707 0.004139 255
2.547934 -4.134900 0.004072 255
2.536536 -4.173530 0.003893 255
2.520132 -4.204454 0.003774 255
2.509041 -4.244804 0.003581 255
2.493017 -4.277399 0.003449 255
2.480674 -4.316893 0.003263 255
2.464981 -4.351175 0.003117 255
2.447986 -4.383680 0.002985 255
2.428274 -4.411759 0.002885 255
2.404972 -4.433608 0.002832 255
2.381493 -4.455337 0.002779 255
2.362963 -4.486677 0.002653 255
2.339533 -4.509080 0.002593 255
2.278151 -4.457457 0.003084 255
2.244015 -4.457952 0.003184 255
2.213510 -4.465366 0.003230 255
2.175545 -4.457295 0.003389 255
2.151185 -4.476870 0.003343 255
2.141630 -4.527953 0.003064 255
2.103680 -4.519250 0.003223 255
2.073829 -4.527527 0.003256 255
2.041080 -4.529226 0.003336 255
2.009604 -4.533436 0.003396 255
1.971362 -4.521848 0.003568 255
1.936882 -4.518234 0.003681 255
1.905240 -4.520818 0.003747 255
1.872108 -4.519489 0.003840 255
1.846603 -4.536448 0.003800 255
1.809824 -4.525409 0.003959 255
1.777635 -4.525259 0.004039 255
1.742639 -4.517422 0.004172 255
1.609722 -4.250279 0.006141 255
1.575252 -4.237580 0.006301 255
1.550249 -4.249984 0.006281 255
1.514711 -4.233053 0.006466 255
1.475799 -4.205467 0.006725 255
1.440860 -4.187966 0.006911 255
1.404275 -4.164511 0.007136 255
1.374932 -4.161654 0.007216 255
1.361682 -4.208070 0.006951 255
1.344895 -4.244945 0.006752 82
1.328889 -4.285592 0.006526 144
1.289509 -4.250603 0.006825 255
1.243215 -4.190367 0.007295 255
1.226948 -4.230571 0.007070 255
1.190609 -4.201459 0.007322 255
1.160807 -4.194229 0.007421 255
1.142872 -4.230235 0.007223 255
1.102116 -4.181083 0.007607 255
1.077934 -4.193578 0.007567 255
1.063356 -4.244734 0.007262 255
1.048665 -4.297811 0.006944 255
1.067548 -4.494859 0.005644 255
1.039273 -4.498402 0.005664 255
1.007928 -4.488108 0.005777 255
0.968440 -4.439495 0.006148 255
0.944702 -4.461984 0.006035 255
0.908058 -4.422637 0.006340 255
0.856136 -4.303567 0.007183 255
0.848614 -4.406935 0.006520 255
0.818996 -4.398295 0.006612 255
0.780316 -4.338281 0.007050 255
0.731807 -4.216873 0.007899 255
0.706908 -4.227201 0.007859 255
0.677464 -4.209739 0.008005 255
0.648566 -4.194052 0.008138 255
0.626780 -4.224659 0.007959 255
0.601268 -4.231396 0.007939 255
0.575427 -4.235997 0.007932 255
0.546985 -4.220605 0.008058 255
0.516673 -4.188153 0.008297 255
0.489338 -4.177340 0.008390 255
0.463146 -4.175294 0.008423 255
0.436478 -4.168112 0.008489 255
0.412560 -4.187630 0.008377 255
0.386030 -4.181120 0.008436 255
0.359340 -4.171455 0.008516 255
0.333180 -4.166604 0.008562 255
0.307975 -4.173556 0.008529 255
0.281687 -4.165390 0.008595 255
0.255572 -4.158057 0.008655 255
0.229227 -4.144570 0.008755 255
0.204233 -4.154888 0.008695 255
0.179379 -4.171048 0.008595 255
0.153782 -4.172071 0.008595 255
0.127690 -4.156943 0.008701 255
0.102230 -4.159648 0.008688 255
0.077127 -4.183193 0.008536 255
0.051202 -4.162589 0.008675 255
0.025690 -4.167825 0.008642 255
0.000115 -4.185904 0.008522 255
-0.025575 -4.186825 0.008516 255
-0.051401 -4.197588 0.008443 255
-0.077562 -4.219190 0.008297 255
-0.103818 -4.233630 0.008197 255
-0.129947 -4.237911 0.008164 255
-0.156869 -4.262016 0.007998 255
-0.184437 -4.293942 0.007780 255
-0.212991 -4.337674 0.007481 255
-0.240819 -4.358252 0.007335 255
-0.267433 -4.354695 0.007349 255
-0.290367 -4.297101 0.007720 255
-0.310544 -4.211469 0.008277 255
-0.334784 -4.189548 0.008410 255
-0.360141 -4.183430 0.008436 255
-0.387183 -4.196078 0.008337 255
-0.414197 -4.206560 0.008251 255
-0.440417 -4.207917 0.008224 255
-0.466890 -4.211099 0.008184 255
-0.492022 -4.202196 0.008224 255
-0.518164 -4.202075 0.008204 255
-0.544066 -4.199809 0.008197 255
-0.571037 -4.205309 0.008138 255
-0.597533 -4.206676 0.008105 255
-0.624508 -4.210844 0.008052 255
-0.647124 -4.186180 0.008191 255
-0.673751 -4.188054 0.008151 255
-0.701910 -4.198635 0.008052 255
-0.729370 -4.204102 0.007985 255
-0.755152 -4.199547 0.007985 255
-0.783286 -4.207614 0.007899 255
-0.811736 -4.216476 0.007806 255
-0.860620 -4.327145 0.007024 255
-0.907674 -4.421695 0.006347 255
-0.942246 -4.451261 0.006108 255
-0.970820 -4.451257 0.006069 255
-0.998990 -4.449120 0.006042 255
-1.026946 -4.445829 0.006022 255
-1.055362 -4.444308 0.005989 255
-1.083797 -4.442606 0.005956 255
-1.112737 -4.442663 0.005909 255
-1.141968 -4.443500 0.005856 255
-1.170486 -4.441244 0.005823 255
-1.198758 -4.437840 0.005797 255
-1.225432 -4.428473 0.005810 255
-1.253672 -4.424719 0.005783 255
-1.278570 -4.409260 0.005836 255
-1.306169 -4.403249 0.005823 255
-1.334324 -4.398979 0.005797 255
-1.365437 -4.404081 0.005704 255
-1.401496 -4.424218 0.005505 255
-1.429232 -4.417438 0.005492 255
-1.459761 -4.419029 0.005419 255
-1.487807 -4.412832 0.005399 255
-1.506722 -4.379981 0.005564 255
-1.516348 -4.321589 0.005909 255
-1.509142 -4.218053 0.006573 255
-1.510662 -4.142015 0.007043 255
-1.516534 -4.080179 0.007415 255
-1.550042 -4.093240 0.007256 255
-1.573689 -4.079921 0.007282 255
-1.599059 -4.071118 0.007276 255
-1.611753 -4.030591 0.007494 191
-1.525599 -3.748333 0.009444 215
-1.531346 -3.697329 0.009743 255
-0.000000 -0.000000 -0.000000 0
-1.523801 -3.555104 0.010631 255
-0.000000 -0.000000 -0.000000 0
-0.000000 -0.000000 -0.000000 0
-0.000000 -0.000000 -0.000000 0
-1.419841 -3.100260 0.013669 60
-1.513962 -3.252855 0.012488 255
-1.377389 -2.912662 0.014916 85
-1.385273 -2.883425 0.015068 186
-1.404255 -2.877567 0.015049 255
-0.000000 -0.000000 -0.000000 0
-1.434515 -2.850293 0.015121 84
-0.000000 -0.000000 -0.000000 0
-0.000000 -0.000000 -0.000000 0
-0.000000 -0.000000 -0.000000 0
-0.000000 -0.000000 -0.000000 0
-1.600906 -2.951735 0.014014 255
-0.000000 -0.000000 -0.000000 0
-0.000000 -0.000000 -0.000000 0
-0.000000 -0.000000 -0.000000 0
-0.000000 -0.000000 -0.000000 0
-0.000000 -0.000000 -0.000000 0
-0.000000 -0.000000 -0.000000 0
-0.000000 -0.000000 -0.000000 0
-0.000000 -0.000000 -0.000000 0
-0.000000 -0.000000 -0.000000 0
-0.000000 -0.000000 -0.000000 0
-0.000000 -0.000000 -0.000000 0
-0.000000 -0.000000 -0.000000 0
-0.000000 -0.000000 -0.000000 0
-0.000000 -0.000000 -0.000000 0
-0.000000 -0.000000 -0.000000 0
-1.985126 -2.932127 0.012800 153
-0.000000 -0.000000 -0.000000 0
-0.000000 -0.000000 -0.000000 0
-0.000000 -0.000000 -0.000000 0
-0.000000 -0.000000 -0.000000 0
-2.161424 -2.990604 0.011812 220
-2.167918 -2.961150 0.011945 255
-2.181876 -2.942170 0.011991 255
-2.199287 -2.927927 0.011998 255
-2.266261 -2.978836 0.011460 183
-2.313796 -3.002892 0.011142 60
-2.361711 -3.026477 0.010824 255
-2.404420 -3.042524 0.010565 255
-2.439916 -3.048792 0.010386 255
-2.462355 -3.038424 0.010346 246
-2.482855 -3.025577 0.010326 247
-2.501373 -3.010286 0.010326 154
-2.517865 -2.992586 0.010346 255
-2.534883 -2.975558 0.010360 186
-2.557012 -2.964491 0.010320 255
-2.584363 -2.959289 0.010227 255
-2.611084 -2.953114 0.010141 255
-2.687854 -3.002597 0.009557 255
-2.714958 -2.995680 0.009471 255
-2.742754 -2.989279 0.009378 255
-2.749473 -2.959940 0.009491 255
-2.763473 -2.938643 0.009531 255
-2.816620 -2.958565 0.009192 255
-3.087338 -3.203285 0.006778 255
-3.102046 -3.179272 0.006825 255
-3.109548 -3.148085 0.006937 255
-3.106177 -3.106320 0.007150 255
-3.099566 -3.061906 0.007388 255
-3.031688 -2.958333 0.008191 255
-3.148427 -3.034741 0.007282 255
-3.186544 -3.033982 0.007103 255
-3.218942 -3.027388 0.006977 255
-3.262368 -3.030718 0.006752 255
-3.308166 -3.035656 0.006506 255
-3.343773 -3.030745 0.006354 255
-3.389129 -3.034181 0.006115 255
-3.425663 -3.029225 0.005956 255
-3.471301 -3.031827 0.005717 255
-3.526943 -3.042473 0.005392 255
-3.559247 -3.032447 0.005273 255
-3.606099 -3.034370 0.005027 255
-3.646185 -3.030080 0.004842 255
-3.680169 -3.020337 0.004709 255
-3.717278 -3.012809 0.004550 255
-3.747406 -2.999315 0.004450 255
-3.873226 -3.061204 0.003542 255
-3.872227 -3.022002 0.003707 255
-3.976247 -3.064099 0.002991 255
-4.065805 -3.093529 0.002401 255
-4.079912 -3.064920 0.002441 255
-4.090610 -3.033872 0.002507 255
-4.146264 -3.035887 0.002202 255
-4.266123 -3.083606 0.001373 255
-4.314270 -3.078278 0.001134 255
-4.411566 -3.107019 0.000497 239
-4.397703 -3.057063 0.000763 255
-4.492242 -3.082063 0.000153 255
-0.000000 -0.000000 -0.000000 0
-4.582109 -3.061701 -0.000265 255
-4.682627 -3.087467 -0.000915 225
-4.724116 -3.073398 -0.001094 255
-6.654936 -4.271472 -0.016163 255
-6.742696 -4.269607 -0.016647 255
-10.276658 -6.419144 -0.044078 255
-10.331177 -6.365408 -0.044197 255
-7.005585 -4.257458 -0.018086 255
-7.127644 -4.271965 -0.018829 255
-7.234645 -4.275973 -0.019452 255
-7.259017 -4.230495 -0.019439 255
-7.322989 -4.207794 -0.019731 255
-7.547923 -4.275640 -0.021250 255
-7.563539 -4.223396 -0.021170 255
-7.778544 -4.281045 -0.022602 255
-7.829278 -4.246585 -0.022788 255
-7.901048 -4.222974 -0.023133 255
-7.972821 -4.198642 -0.023478 255
-8.147558 -4.227002 -0.024592 255
-8.099434 -4.139163 -0.024042 255
-8.388183 -4.222003 -0.025998 255
-8.518760 -4.222409 -0.026774 255
-8.646957 -4.220054 -0.027530 255
-8.770035 -4.213685 -0.028247 255
-8.904204 -4.211092 -0.029042 255
-9.040481 -4.207853 -0.029851 255
-9.176140 -4.202682 -0.030654 255
-9.303866 -4.192306 -0.031397 255
-9.481174 -4.202398 -0.032498 255
-9.623200 -4.194888 -0.033340 255
-9.730560 -4.170821 -0.033930 255
-8.783766 -3.701405 -0.026933 255
-8.805387 -3.647057 -0.026927 255
-8.821116 -3.590321 -0.026880 255
-8.845766 -3.537242 -0.026900 255
-8.850550 -3.476319 -0.026781 255
-8.721501 -3.364015 -0.025713 255
-8.687737 -3.289900 -0.025328 255
-8.482799 -3.152928 -0.023737 255
-8.495408 -3.098421 -0.023690 255
-8.519909 -3.048256 -0.023730 255
-8.519581 -2.989301 -0.023597 255
-8.520741 -2.931115 -0.023478 255
-8.526247 -2.874625 -0.023392 255
-8.536129 -2.819746 -0.023339 255
-8.533290 -2.760853 -0.023199 255
-8.528144 -2.701497 -0.023047 255
-8.529277 -2.644381 -0.022941 255
-8.526203 -2.586192 -0.022808 255
-8.522738 -2.528141 -0.022675 255
-8.526564 -2.472458 -0.022596 255
-8.522332 -2.414642 -0.022463 255
-8.518676 -2.357238 -0.022337 255
-8.514637 -2.299971 -0.022211 255
-8.516018 -2.244370 -0.022125 255
-8.514132 -2.188093 -0.022019 255
-8.519638 -2.133867 -0.021966 255
-8.531599 -2.081314 -0.021959 255
-8.450808 -2.006751 -0.021322 255
-8.428861 -1.946984 -0.021090 255
-8.431867 -1.893258 -0.021031 255
-8.587924 -1.873016 -0.022012 255
-8.657953 -1.832708 -0.022410 255
-0.000000 -0.000000 -0.000000 0
-8.646445 -1.719693 -0.022185 255
-8.631304 -1.661693 -0.022012 255
-9.166310 -1.706408 -0.025554 255
-9.263218 -1.665703 -0.026137 255
-9.294940 -1.612593 -0.026283 255
-0.000000 -0.000000 -0.000000 0
-0.000000 -0.000000 -0.000000 0
-0.000000 -0.000000 -0.000000 0
-0.000000 -0.000000 -0.000000 0
-11.005288 -1.563187 -0.037439 255
-12.100688 -1.643056 -0.044708 255
-12.095666 -1.566850 -0.044608 255
-12.098105 -1.491747 -0.044562 255
-12.093125 -1.415859 -0.044469 255
-12.086678 -1.339978 -0.044369 255
-12.087709 -1.265062 -0.044323 255
-12.088279 -1.190184 -0.044277 255
-12.079422 -1.114519 -0.044170 255
-12.074078 -1.039352 -0.044091 255
-12.083218 -0.965486 -0.044111 255
-12.081933 -0.890812 -0.044064 255
-12.076198 -0.815921 -0.043991 255
-12.080976 -0.741807 -0.043991 255
-12.073319 -0.667004 -0.043912 255
-12.063202 -0.592225 -0.043819 255
-12.065609 -0.518153 -0.043812 255
-12.064564 -0.443963 -0.043786 255
-12.059065 -0.369683 -0.043733 255
-12.064105 -0.295756 -0.043753 255
-12.068692 -0.221782 -0.043772 255
-12.060827 -0.147616 -0.043713 255
-10.032588 -0.061292 -0.030256 255
-9.975776 0.000264 -0.029878 255
-9.946588 0.061294 -0.029686 255
-9.879031 0.121498 -0.029241 255
-9.850105 0.181595 -0.029056 255
-12.057375 -0.296393 -0.117295 255
-12.058967 -0.222404 -0.117295 255
-12.053105 -0.148321 -0.117206 255
-12.051789 -0.074350 -0.117181 255
-12.054018 -0.000400 -0.117206 255
-0.000000 0.000000 -0.000000 0
-0.000000 0.000000 -0.000000 0
-0.000000 0.000000 -0.000000 0
-9.807252 0.240501 -0.088616 255
-0.000000 0.000000 -0.000000 0
-0.000000 0.000000 -0.000000 0
-0.000000 0.000000 -0.000000 0
-9.368947 0.460042 -0.083138 255
-9.365948 0.517520 -0.083138 255
-12.040340 0.739313 -0.117321 255
-12.034580 0.813110 -0.117308 255
-12.022384 0.886423 -0.117219 255
-12.011735 0.959776 -0.117155 255
-12.005620 1.033461 -0.117155 255
-12.019962 1.109035 -0.117423 255
-12.014921 1.182963 -0.117448 255
-12.009425 1.256871 -0.117474 255
-12.006456 1.331087 -0.117537 255
-12.001042 1.405081 -0.117576 255
-12.001126 1.479792 -0.117690 255
-12.001738 1.554686 -0.117818 255
-11.995935 1.628836 -0.117869 255
-11.926316 1.693976 -0.117104 255
-11.095729 1.645547 -0.106542 255
-10.452983 1.615857 -0.098388 255
-10.118073 1.627726 -0.094197 255
-9.838651 1.644779 -0.090718 255
-9.220500 1.599682 -0.082858 255
-9.227242 1.659235 -0.083074 255
-9.221802 1.716736 -0.083138 255
-9.215022 1.774044 -0.083189 255
-9.214751 1.832698 -0.083329 255
-9.215087 1.891616 -0.083482 255
-9.214067 1.950400 -0.083622 255
-9.206811 2.007965 -0.083686 255
-0.000000 0.000000 -0.000000 0
-7.304049 1.687217 -0.059135 255
-7.209891 1.712138 -0.058039 255
-7.059363 1.722226 -0.056204 255
-6.952636 1.741462 -0.054943 255
-6.943757 1.784587 -0.054968 255
-6.938477 1.828689 -0.055045 255
-6.937745 1.874096 -0.055185 255
-6.934788 1.919029 -0.055300 255
-6.943086 1.967268 -0.055567 255
-11.968029 3.470220 -0.122391 255
-11.968560 3.550128 -0.122685 255
-11.976214 3.632495 -0.123079 255
-11.987128 3.716274 -0.123525 255
-11.969820 3.791567 -0.123602 255
-11.962503 3.870173 -0.123818 255
-11.977459 3.956358 -0.124341 255
-11.941587 4.025943 -0.124188 255
-0.000000 0.000000 -0.000000 0
-0.000000 0.000000 -0.000000 0
-0.000000 0.000000 -0.000000 0
-6.983403 2.547040 -0.058332 255
-6.975142 2.592628 -0.058434 255
-6.964713 2.637502 -0.058510 255
-0.000000 0.000000 -0.000000 0
-5.433371 2.134280 -0.037998 255
-5.421101 2.167950 -0.038011 255
-5.415106 2.204188 -0.038113 255
-5.412566 2.241964 -0.038266 255
-5.410686 2.280180 -0.038431 255
-5.388322 2.309791 -0.038317 255
-5.398797 2.353597 -0.038661 255
-5.380597 2.385059 -0.038610 255
-0.000000 0.000000 -0.000000 0
-5.349105 2.450075 -0.038584 255
-5.324906 2.478631 -0.038457 252
-0.000000 0.000000 -0.000000 0
-0.000000 0.000000 -0.000000 0
-0.000000 0.000000 -0.000000 0
-0.000000 0.000000 -0.000000 0
-0.000000 0.000000 -0.000000 0
-0.000000 0.000000 -0.000000 0
-0.000000 0.000000 -0.000000 0
-3.756489 1.978472 -0.017715 221
-3.757507 2.008554 -0.017906 132
-3.730169 2.023468 -0.017690 255
-3.753600 2.066083 -0.018212 255
-3.712915 2.073478 -0.017804 241
-3.714043 2.104105 -0.018008 167
-3.707131 2.130342 -0.018097 170
-3.702630 2.158082 -0.018225 189
-3.690179 2.181269 -0.018237 134
-3.688733 2.211067 -0.018416 255
-3.677660 2.235217 -0.018454 255
-3.659620 2.255118 -0.018390 255
-3.653346 2.282298 -0.018505 189
-3.631670 2.299857 -0.018390 167
-0.000000 0.000000 -0.000000 0
-3.579705 2.328984 -0.018034 255
-3.541137 2.334944 -0.017664 201
-3.465217 2.315523 -0.016721 90
-0.000000 0.000000 -0.000000 0
-0.000000 0.000000 -0.000000 0
-0.000000 0.000000 -0.000000 0
-3.189877 2.246728 -0.013332 94
-3.140215 2.240707 -0.012772 77
-3.100474 2.241191 -0.012364 106
-0.000000 0.000000 -0.000000 0
-0.000000 0.000000 -0.000000 0
-0.000000 0.000000 -0.000000 0
-2.943470 2.239718 -0.010746 71
-2.891652 2.228443 -0.010134 109
-2.877924 2.246144 -0.010134 55
-2.842906 2.247022 -0.009790 95
-2.824380 2.260675 -0.009714 107
-2.784819 2.257188 -0.009294 92
-0.000000 0.000000 -0.000000 0
-0.000000 0.000000 -0.000000 0
-0.000000 0.000000 -0.000000 0
-0.000000 0.000000 -0.000000 0
-0.000000 0.000000 -0.000000 0
-2.494236 2.178606 -0.005815 57
-2.430631 2.149495 -0.004962 108
-2.392810 2.142361 -0.004541 43
-2.238101 2.028754 -0.002108 66
-2.216769 2.034337 -0.001955 101
-2.196918 2.041095 -0.001828 64
-2.161042 2.032618 -0.001420 81
-2.136218 2.034119 -0.001203 132
-2.138816 2.061759 -0.001471 187
-2.137577 2.086017 -0.001675 127
-2.122603 2.096985 -0.001636 73
-2.133030 2.133301 -0.002057 193
-2.133955 2.160575 -0.002312 242
-2.129038 2.182216 -0.002465 123
-2.120466 2.200278 -0.002554 255
-2.091066 2.196592 -0.002261 255
-2.085770 2.218122 -0.002414 215
-2.065995 2.224285 -0.002299 149
-2.038110 2.221449 -0.002031 120
-2.051975 2.264287 -0.002554 255
-2.002692 2.237353 -0.001879 237
-1.973029 2.231622 -0.001573 90
-1.948774 2.231637 -0.001369 97
-1.927859 2.235224 -0.001229 79
-1.910217 2.242445 -0.001152 54
-1.889339 2.245708 -0.001012 53
-1.853794 2.231112 -0.000579 77
-0.000000 0.000000 -0.000000 0
-1.797312 2.217961 0.000007 42
-1.769297 2.210993 0.000300 81
-1.738956 2.200627 0.000644 72
-1.717422 2.201009 0.000810 56
-1.697781 2.203585 0.000937 78
-1.683017 2.212370 0.000963 101
-1.664005 2.215460 0.001077 55
-1.650976 2.226431 0.001065 62
-1.631967 2.229259 0.001179 61
-1.608299 2.225455 0.001396 84
-1.588224 2.226328 0.001536 150
-1.571079 2.231126 0.001612 53
-1.548798 2.228409 0.001804 149
-1.528306 2.227977 0.001956 184
-1.504515 2.222409 0.002186 109
-1.481961 2.218297 0.002390 93
-1.459514 2.213992 0.002593 71
-1.438267 2.211172 0.002772 91
-1.419271 2.211541 0.002899 42
-1.393904 2.201624 0.003179 96
-1.376131 2.203351 0.003281 116
-1.353142 2.196431 0.003511 75
-1.334965 2.197002 0.003625 113
-1.321460 2.205152 0.003625 120
-1.306378 2.210636 0.003664 146
-1.290775 2.215155 0.003715 93
-1.273671 2.216965 0.003804 85
-1.255608 2.216908 0.003918 91
-1.237106 2.215841 0.004046 110
-1.220111 2.217258 0.004135 141
-1.199808 2.212398 0.004313 146
-1.179139 2.206491 0.004504 151
-1.159054 2.201299 0.004683 174
-1.141841 2.201269 0.004785 173
-1.124216 2.200221 0.004899 177
-1.108447 2.202611 0.004963 171
-1.091358 2.202204 0.005065 158
-1.076070 2.205265 0.005116 247
-1.059487 2.205518 0.005205 255
-1.043796 2.207458 0.005269 156
-1.029810 2.212914 0.005282 198
-1.014130 2.214646 0.005345 214
-0.999289 2.218092 0.005384 255
-0.686978 1.550483 0.014773 255
-0.669858 1.537254 0.015015 255
-0.654503 1.527550 0.015207 255
-0.643952 1.528773 0.015245 255
-0.633029 1.529001 0.015296 255
-0.621750 1.528226 0.015359 255
-0.610505 1.527370 0.015423 255
-0.599659 1.527364 0.015474 255
-0.588836 1.527283 0.015525 255
-0.578037 1.527127 0.015576 255
-0.567262 1.526896 0.015627 255
-0.556512 1.526591 0.015678 255
-0.545787 1.526211 0.015729 255
-0.534094 1.522927 0.015818 255
-0.523763 1.523339 0.015856 255
-0.512489 1.520839 0.015933 255
-0.501893 1.520157 0.015984 255
-0.491324 1.519403 0.016035 255
-0.480784 1.518576 0.016086 255
-0.471161 1.520542 0.016098 255
-0.461242 1.521491 0.016124 255
-0.451044 1.521417 0.016162 255
-0.440864 1.521275 0.016200 255
-0.430976 1.522027 0.016226 255
-0.421096 1.522715 0.016251 255
-0.410180 1.519479 0.016328 255
-0.400084 1.519066 0.016366 255
-0.389262 1.515682 0.016442 255
-0.378982 1.514162 0.016493 255
-0.368736 1.512573 0.016544 255
-0.359679 1.515780 0.016532 255
-0.350597 1.518933 0.016519 255
-0.362528 1.615690 0.015283 255
-0.363265 1.666730 0.014646 255
-0.000000 0.000000 -0.000000 0
-0.389653 1.899281 0.011677 255
-0.378382 1.903597 0.011652 255
-0.372936 1.938285 0.011232 255
-0.362683 1.949384 0.011117 255
-0.387897 2.158237 0.008441 255
-0.373450 2.153681 0.008531 255
-0.364022 2.178615 0.008237 255
-0.000000 0.000000 -0.000000 0
-0.337107 2.181930 0.008250 255
-0.322978 2.179011 0.008314 255
-0.309321 2.178972 0.008339 255
-0.296214 2.182811 0.008314 255
-0.283072 2.186570 0.008288 255
-0.000000 0.000000 -0.000000 0
-0.255520 2.183921 0.008365 255
-0.242005 2.184454 0.008378 255
-0.228076 2.180925 0.008441 255
-0.214395 2.179298 0.008480 255
-0.200652 2.176590 0.008531 255
-0.187035 2.174792 0.008569 255
-0.173847 2.177892 0.008543 255
-0.000000 0.000000 -0.000000 0
-0.000000 0.000000 -0.000000 0
-0.133361 2.174735 0.008620 255
-0.120015 2.175512 0.008620 255
-0.106614 2.175209 0.008632 255
-0.093266 2.175822 0.008632 255
-0.079840 2.174355 0.008658 255
-0.066466 2.173804 0.008671 255
-0.053052 2.171172 0.008709 255
-0.039785 2.174456 0.008671 255
-0.026405 2.171660 0.008709 255
-0.013085 2.172781 0.008696 255
0.000247 2.171820 0.008709 255
0.013573 2.171778 0.008709 255
0.026898 2.171654 0.008709 255
0.040278 2.174447 0.008671 255
0.053595 2.173159 0.008683 255
0.066836 2.169791 0.008722 255
0.080185 2.170340 0.008709 255
0.093544 2.170806 0.008696 255
0.107156 2.176183 0.008620 255
0.120672 2.178480 0.008581 255
0.133975 2.176700 0.008594 255
0.147329 2.175837 0.008594 255
0.160677 2.174892 0.008594 255
0.174018 2.173866 0.008594 255
0.185896 2.155821 0.008811 255
0.199213 2.155635 0.008798 255
0.212534 2.155367 0.008785 255
0.226171 2.158001 0.008734 255
0.240289 2.164523 0.008632 255
0.254612 2.171946 0.008518 255
0.267934 2.170343 0.008518 255
0.281374 2.169650 0.008505 255
0.296565 2.181754 0.008327 255
0.309946 2.179893 0.008327 255
0.325956 2.195755 0.008097 163
0.339881 2.196678 0.008059 129
0.352400 2.188627 0.008136 187
0.366317 2.189383 0.008097 148
0.380769 2.193005 0.008021 125
0.394926 2.194564 0.007970 85
0.408018 2.190133 0.007995 55
0.425796 2.210172 0.007702 36
1.656018 8.326221 -0.071786 255
0.000000 0.000000 -0.000000 0
1.759518 8.312119 -0.071875 255
0.487364 2.233251 0.007256 32
0.503029 2.238999 0.007142 59
1.917619 8.301706 -0.072181 255
1.968752 8.290757 -0.072194 255
2.021956 8.288236 -0.072321 255
0.000000 0.000000 -0.000000 0
2.185475 8.503945 -0.075493 255
2.304366 8.743707 -0.078831 255
2.359277 8.734230 -0.078895 255
2.415224 8.728262 -0.079010 255
2.477183 8.743102 -0.079405 255
2.530226 8.725818 -0.079379 255
2.581160 8.701500 -0.079265 255
2.635083 8.687412 -0.079290 255
2.689819 8.675856 -0.079354 255
0.699614 2.207603 0.006874 32
0.707607 2.186143 0.007104 27
0.000000 0.000000 -0.000000 0
0.740769 2.196246 0.006849 33
2.196266 6.384236 -0.049643 255
2.243673 6.394228 -0.049961 255
2.277139 6.364336 -0.049745 255
2.316147 6.350244 -0.049745 255
2.338000 6.289986 -0.049121 255
2.374426 6.269911 -0.049044 255
2.419689 6.272950 -0.049286 255
2.456671 6.254261 -0.049235 255
2.492773 6.233500 -0.049159 255
2.525321 6.204194 -0.048968 255
2.561811 6.184887 -0.048917 255
2.587288 6.139565 -0.048509 255
2.624517 6.122655 -0.048496 255
2.657641 6.096353 -0.048356 255
2.692567 6.074446 -0.048280 255
2.729788 6.057811 -0.048280 255
2.765241 6.037311 -0.048229 255
2.754136 5.916883 -0.046776 255
2.777138 5.871850 -0.046381 255
2.787568 5.801522 -0.045630 255
1.068149 2.187991 0.005358 255
1.100647 2.219920 0.004810 255
1.095817 2.176505 0.005333 255
1.106876 2.165288 0.005396 255
1.119221 2.156680 0.005422 255
1.133365 2.151542 0.005396 255
1.139947 2.132201 0.005575 255
1.122499 2.068912 0.006390 255
1.170847 2.126812 0.005447 255
1.185825 2.123080 0.005396 255
1.200308 2.118374 0.005358 255
1.216770 2.117038 0.005269 255
1.172848 2.011907 0.006709 255
1.153121 1.950441 0.007511 119
1.161983 1.938182 0.007588 57
0.000000 0.000000 -0.000000 0
1.178337 1.911859 0.007766 111
1.196932 1.915618 0.007600 57
1.208663 1.908237 0.007600 45
0.000000 0.000000 -0.000000 0
0.000000 0.000000 -0.000000 0
0.000000 0.000000 -0.000000 0
3.361475 5.030815 -0.040712 255
3.372100 4.980287 -0.040253 255
3.916754 5.709026 -0.051834 255
3.962553 5.700487 -0.052076 255
4.008970 5.692417 -0.052331 255
4.063567 5.695387 -0.052764 255
0.000000 0.000000 -0.000000 0
0.000000 0.000000 -0.000000 0
0.000000 0.000000 -0.000000 0
0.000000 0.000000 -0.000000 0
0.000000 0.000000 -0.000000 0
0.000000 0.000000 -0.000000 0
3.342921 4.283504 -0.032851 255
3.370381 4.264480 -0.032876 255
3.399608 4.247623 -0.032940 255
6.794256 8.383697 -0.101115 255
6.865867 8.366586 -0.101522 255
6.942635 8.355063 -0.102032 255
7.020163 8.343678 -0.102554 255
7.094569 8.327848 -0.103013 255
7.166432 8.308391 -0.103421 255
7.237666 8.287610 -0.103816 255
7.304276 8.261024 -0.104122 255
7.372167 8.235421 -0.104453 255
0.000000 0.000000 -0.000000 0
0.000000 0.000000 -0.000000 0
0.000000 0.000000 -0.000000 0
3.369015 3.582249 -0.026277 244
3.327503 3.494880 -0.025105 255
3.341252 3.466477 -0.024964 255
2.591566 2.655757 -0.010899 255
2.575491 2.607080 -0.010313 255
2.573764 2.573551 -0.009994 188
2.589506 2.557710 -0.009994 255
2.604436 2.541075 -0.009982 255
2.615659 2.520882 -0.009905 255
2.639768 2.513060 -0.010058 255
2.665335 2.506406 -0.010236 255
2.674803 2.484560 -0.010134 255
2.670107 2.449847 -0.009790 255
2.669530 2.419315 -0.009523 255
2.648567 2.370873 -0.008911 255
2.660069 2.351928 -0.008860 255
2.641314 2.306618 -0.008300 255
2.636490 2.274039 -0.007981 255
2.603205 2.217611 -0.007191 106
2.616763 2.201596 -0.007191 255
2.615612 2.173356 -0.006949 255
2.604165 2.136965 -0.006542 255
2.614898 2.119057 -0.006503 255
2.615361 2.092975 -0.006299 255
2.604620 2.058286 -0.005917 255
2.645577 2.064414 -0.006376 255
2.654234 2.045090 -0.006312 255
2.642065 2.009995 -0.005917 255
2.636761 1.980532 -0.005637 255
2.623164 1.945253 -0.005229 184
2.589873 1.896038 -0.004516 53
2.633062 1.902958 -0.005013 202
2.633294 1.878634 -0.004834 169
2.629239 1.851501 -0.004592 255
2.633161 1.830196 -0.004478 255
2.641868 1.812308 -0.004439 255
2.522952 1.708038 -0.002439 255
2.569134 1.716416 -0.002987 255
2.559582 1.687408 -0.002681 255
2.559831 1.665127 -0.002528 255
2.559902 1.642907 -0.002375 255
2.590209 1.640009 -0.002681 255
2.612943 1.632032 -0.002872 255
2.641635 1.627510 -0.003153 255
2.642173 1.605557 -0.003012 255
2.642541 1.583660 -0.002872 255
2.639297 1.559783 -0.002681 255
2.633268 1.534495 -0.002452 255
2.629630 1.510835 -0.002261 255
2.630151 1.489742 -0.002133 255
2.633131 1.470163 -0.002044 255
2.633343 1.449157 -0.001917 255
2.682615 1.454905 -0.002503 255
2.733819 1.461046 -0.003114 255
2.771042 1.459156 -0.003522 255
2.798582 1.451797 -0.003790 255
2.834147 1.448251 -0.004172 255
2.872453 1.445672 -0.004592 255
2.922479 1.448450 -0.005178 255
2.974443 1.451545 -0.005790 255
2.992306 1.437599 -0.005917 255
3.029995 1.432894 -0.006325 255
3.092214 1.439174 -0.007077 255
3.177348 1.455156 -0.008147 186
3.187128 1.436044 -0.008160 222
3.195880 1.416461 -0.008160 255
3.220093 1.403619 -0.008376 255
3.210264 1.375954 -0.008121 255
3.222332 1.357784 -0.008172 161
3.225984 1.336073 -0.008109 255
3.234121 1.316253 -0.008109 137
